26.21,-13.11,-31.11,-0.27,-0.83,-0.48
21.45,-8.34,-42.64,-0.24,-0.86,-0.46
16.68,-14.30,-36.88,-0.19,-0.85,-0.50
16.68,-14.30,-35.72,-0.17,-0.89,-0.43
16.68,-9.53,-49.55,-0.20,-0.92,-0.34
16.68,-9.53,-49.55,-0.33,-0.90,-0.29
16.68,-9.53,-49.55,0.06,-0.96,0.27
23.83,-53.61,-80.66,0.79,-0.61,0.06
57.19,-60.76,-97.95,0.09,0.99,0.04
102.46,-4.77,-41.48,-0.42,-0.87,0.24
100.08,-46.46,-80.66,0.53,0.61,0.59
101.27,22.64,-104.86,0.70,-0.16,0.70
77.44,14.30,-124.45,0.81,-0.34,0.48
58.38,-8.34,-139.43,-0.57,-0.82,-0.07
39.32,-54.80,-110.62,0.15,-0.99,0.04
32.17,-57.19,-100.25,-0.08,0.34,0.93
40.51,-61.95,-84.12,-0.07,-0.68,-0.73
25.02,-21.45,-47.25,0.30,-0.92,-0.24
11.91,-4.77,-44.94,0.32,-0.93,-0.19
7.15,17.87,-57.62,0.64,-0.74,0.20
9.53,17.87,-70.29,0.38,-0.91,-0.14
11.91,15.49,-103.71,0.42,-0.77,0.48
16.68,-10.72,-117.54,0.89,-0.42,0.19
59.57,-57.19,-115.23,0.76,0.51,0.40
103.65,-4.77,-114.08,0.94,0.32,0.14
89.36,30.98,-106.02,0.92,-0.19,-0.33
111.99,-3.57,-101.41,0.69,0.67,0.28
115.57,4.77,-78.36,0.37,0.57,-0.73
79.82,44.08,-72.60,0.80,0.56,-0.21
96.50,38.13,-66.84,-0.24,0.41,-0.88
111.99,-5.96,-79.51,-0.74,0.48,-0.48
100.08,-42.89,-71.45,-0.32,0.78,0.54
91.74,-46.46,-101.41,-0.09,0.21,0.97
65.53,-51.23,-117.54,0.24,0.90,0.35
60.76,-35.74,-124.45,0.95,-0.30,-0.01
14.30,9.53,-111.78,0.88,-0.47,-0.07
34.55,36.93,-56.46,0.95,-0.16,-0.25
35.74,50.04,-85.27,-0.00,-0.96,0.26
38.13,26.21,-131.37,0.91,0.19,0.38
46.46,-20.25,-138.28,0.03,0.89,-0.44
108.42,-33.36,-66.84,0.82,0.19,-0.53
116.76,-19.06,-78.36,0.77,0.60,-0.20
91.74,32.17,-93.34,0.93,0.31,0.21
83.40,33.36,-79.51,0.91,-0.40,-0.01
100.08,33.36,-87.58,0.93,-0.32,-0.14
97.70,13.11,-101.41,0.55,0.73,0.40
92.93,9.53,-115.23,0.52,0.08,0.85
76.25,2.38,-131.37,0.86,0.38,0.32
84.59,5.96,-130.21,0.86,0.40,0.31
78.63,16.68,-127.91,0.62,0.63,0.46
73.87,21.45,-125.61,0.53,-0.07,0.84
83.40,34.55,-114.08,0.42,0.13,-0.90
83.40,42.89,-109.47,0.94,0.33,-0.08
65.53,57.19,-72.60,0.74,0.17,-0.65
45.27,53.61,-79.51,0.82,-0.46,-0.34
50.04,54.80,-69.14,0.95,-0.21,-0.24
32.17,46.46,-77.21,0.87,-0.44,-0.20
28.59,36.93,-81.82,0.59,-0.41,-0.70
13.11,28.59,-84.12,0.46,0.45,0.77
10.72,25.02,-78.36,0.29,-0.05,0.96
17.87,28.59,-53.01,-0.04,-0.94,0.33
19.06,34.55,-78.36,0.91,-0.36,-0.20
8.34,13.11,-95.64,0.31,-0.94,0.15
15.49,25.02,-99.10,0.10,-0.99,-0.07
9.53,0.00,-106.02,-0.30,0.08,0.95
33.36,-10.72,-133.67,-0.83,-0.54,-0.11
61.95,-50.04,-119.84,-0.91,-0.23,0.34
69.10,-40.51,-124.45,0.06,0.37,0.93
84.59,-2.38,-132.52,0.50,0.75,0.44
89.36,33.36,-104.86,0.80,0.19,-0.57
94.12,33.36,-104.86,0.92,0.35,-0.15
83.40,46.46,-74.90,0.56,-0.24,-0.79
70.29,48.85,-56.46,0.51,0.13,-0.85
41.70,39.32,-40.33,0.68,0.72,-0.15
20.25,15.49,-33.42,-0.13,-0.86,-0.49
20.25,34.55,-53.01,0.31,0.95,0.10
11.91,17.87,-77.21,0.10,-0.97,-0.23
4.77,26.21,-85.27,-0.48,-0.82,0.32
1.19,9.53,-95.64,0.53,-0.82,-0.24
10.72,16.68,-78.36,-0.02,-0.95,-0.32
20.25,42.89,-79.51,0.90,-0.42,-0.09
34.55,42.89,-63.38,0.71,0.17,-0.68
10.72,29.79,-76.05,0.52,-0.68,-0.52
23.83,40.51,-71.45,0.88,0.05,-0.46
15.49,32.17,-79.51,0.87,0.34,0.36
28.59,38.13,-96.80,0.01,-0.74,-0.67
27.40,33.36,-103.71,0.89,-0.40,0.18
21.45,39.32,-87.58,0.77,-0.63,-0.09
30.98,29.79,-112.93,0.46,-0.71,0.53
23.83,21.45,-115.23,0.58,-0.43,0.69
50.04,-29.79,-129.06,0.32,-0.04,-0.95
5.96,-33.36,-93.34,0.59,-0.76,0.27
25.02,-35.74,-116.39,-0.87,0.34,0.35
17.87,-38.13,-108.32,0.18,-0.95,0.24
25.02,-51.23,-106.02,-0.64,-0.70,0.33
21.45,-51.23,-92.19,-0.31,-0.94,-0.16
14.30,-44.08,-74.90,-0.11,-0.98,-0.14
9.53,-33.36,-64.53,0.06,-0.83,-0.54
2.38,-9.53,-61.07,0.35,-0.88,-0.30
3.57,-8.34,-73.75,0.70,-0.64,0.31
0.00,-5.96,-88.73,0.91,-0.31,0.27
13.11,17.87,-103.71,0.53,-0.84,-0.08
45.27,4.77,-131.37,0.62,0.75,0.22
76.25,-28.59,-127.91,-0.08,0.98,0.17
79.82,-40.51,-121.00,-0.76,-0.05,0.64
69.10,-56.00,-109.47,-0.85,0.50,-0.15
66.72,-54.80,-108.32,-0.78,0.18,0.60
64.34,-57.19,-109.47,-0.86,-0.24,-0.44
45.27,-63.14,-91.04,-0.94,-0.25,0.21
44.08,-59.57,-99.10,-0.93,-0.32,-0.16
29.79,-44.08,-110.62,0.42,-0.89,0.15
14.30,-5.96,-118.69,-0.42,-0.84,-0.34
19.06,-7.15,-132.52,0.52,-0.00,0.85
40.51,2.38,-135.98,0.61,-0.27,0.74
50.04,7.15,-135.98,0.64,0.26,0.72
65.53,1.19,-140.59,0.01,-1.00,0.01
66.72,-57.19,-110.62,-0.34,0.74,0.58
65.53,-54.80,-114.08,-0.76,-0.23,0.60
33.36,-48.85,-117.54,-0.63,-0.22,0.75
29.79,-28.59,-117.54,-0.44,-0.33,0.83
28.59,-22.64,-124.45,-0.29,-0.34,0.90
25.02,-11.91,-138.28,-0.15,-0.43,0.89
20.25,4.77,-123.30,-0.32,-0.92,0.23
11.91,0.00,-115.23,-0.12,-0.72,0.68
15.49,-9.53,-114.08,0.17,-0.98,0.04
13.11,1.19,-112.93,-0.18,-0.82,0.54
14.30,0.00,-119.84,-0.07,-1.00,0.02
8.34,13.11,-103.71,0.20,-0.98,-0.06
15.49,26.21,-96.80,0.18,-0.96,-0.21
17.87,27.40,-73.75,0.29,-0.86,-0.43
19.06,29.79,-74.90,0.66,-0.57,-0.49
32.17,40.51,-61.07,0.70,0.04,-0.71
48.85,45.27,-56.46,0.62,-0.67,-0.40
71.48,42.89,-58.77,0.56,0.23,-0.80
89.36,40.51,-41.48,0.51,0.47,-0.72
108.42,20.25,-79.51,0.53,0.69,-0.49
113.18,4.77,-107.17,-0.19,0.98,0.00
90.55,-14.30,-132.52,0.19,0.36,0.91
58.38,-3.57,-139.43,0.28,0.41,0.87
25.02,-13.11,-129.06,-0.45,-0.73,0.52
7.15,-11.91,-102.56,0.34,-0.84,0.42
4.77,-20.25,-85.27,0.10,-0.81,0.58
0.00,-21.45,-70.29,-0.41,-0.73,-0.54
9.53,-30.98,-64.53,0.54,-0.79,0.29
8.34,-26.21,-57.62,-0.22,-0.47,-0.85
5.96,-14.30,-61.07,0.27,-0.96,0.05
4.77,-9.53,-61.07,0.31,-0.62,-0.72
-4.77,14.30,-77.21,0.90,-0.25,0.35
19.06,29.79,-67.99,0.69,-0.63,-0.37
32.17,34.55,-53.01,0.54,-0.18,-0.82
51.23,47.66,-63.38,0.68,0.43,-0.59
73.87,40.51,-53.01,0.91,0.33,-0.23
106.04,21.45,-93.34,0.68,0.61,0.41
100.08,-2.38,-111.78,0.21,0.70,0.68
83.40,-22.64,-131.37,-0.66,0.59,0.47
34.55,-36.93,-121.00,-0.81,-0.55,-0.20
10.72,-38.13,-95.64,-0.30,-0.93,0.22
17.87,-47.66,-72.60,-0.16,0.50,-0.85
29.79,-39.32,-47.25,-0.60,-0.31,-0.74
54.80,-53.61,-42.64,0.12,-0.98,-0.17
107.23,-44.08,-102.56,0.63,0.72,0.30
113.18,-20.25,-87.58,-0.81,0.42,-0.41
109.61,-3.57,-103.71,0.78,0.35,0.51
100.08,22.64,-88.73,0.88,0.01,0.47
85.78,39.32,-84.12,0.37,0.64,-0.67
85.78,30.98,-47.25,0.91,0.13,-0.39
109.61,20.25,-64.53,0.61,0.54,-0.58
119.14,-3.57,-78.36,0.32,0.78,-0.53
109.61,-15.49,-108.32,0.15,0.91,0.38
73.87,-39.32,-125.61,-0.07,0.01,1.00
41.70,-40.51,-117.54,-0.65,-0.41,-0.64
45.27,-65.53,-78.36,-0.67,0.69,-0.27
33.36,-54.80,-63.38,-0.39,-0.91,-0.16
41.70,-46.46,-49.55,-0.57,0.47,-0.67
40.51,-33.36,-39.18,-0.59,-0.45,-0.67
50.04,-32.17,-24.20,-0.24,0.29,-0.93
57.19,-20.25,-26.50,-0.31,0.46,-0.83
56.00,-17.87,-20.74,0.85,0.02,-0.53
40.51,30.98,-44.94,0.79,0.61,-0.06
53.61,32.17,-39.18,0.72,-0.55,-0.41
30.98,28.59,-41.48,0.76,0.53,-0.37
29.79,17.87,-35.72,0.44,-0.69,-0.57
34.55,-30.98,-35.72,0.00,-0.98,0.18
39.32,-47.66,-36.88,-0.16,-0.35,-0.92
67.91,-54.80,-43.79,-0.43,-0.08,-0.90
67.91,-61.95,-89.88,-0.74,0.62,-0.23
60.76,-36.93,-127.91,-0.69,0.72,0.10
50.04,27.40,-121.00,0.68,-0.23,0.70
42.89,13.11,-135.98,-0.87,0.07,0.48
25.02,5.96,-134.82,0.03,-0.71,0.70
29.79,21.45,-122.15,0.80,0.09,0.59
59.57,3.57,-139.43,0.33,0.62,0.71
59.57,35.74,-116.39,0.93,0.21,0.31
69.10,39.32,-110.62,0.76,-0.14,-0.63
60.76,51.23,-93.34,0.83,0.47,-0.29
77.44,51.23,-64.53,0.24,-0.79,-0.57
57.19,46.46,-50.70,0.77,-0.13,-0.62
44.08,39.32,-51.86,0.42,-0.32,-0.85
44.08,44.08,-53.01,0.80,-0.13,-0.58
51.23,53.61,-79.51,0.80,-0.57,0.18
47.66,45.27,-91.04,0.89,-0.43,-0.10
53.61,29.79,-119.84,-0.03,-0.91,0.40
53.61,14.30,-137.13,0.61,-0.45,0.65
52.42,-26.21,-134.82,-0.27,-0.55,0.79
52.42,-51.23,-116.39,0.16,-0.93,0.34
44.08,-67.91,-73.75,-0.94,-0.33,-0.10
38.13,-57.19,-57.62,-0.39,-0.87,-0.30
7.15,-16.68,-48.40,-0.07,-0.97,-0.24
9.53,16.68,-74.90,-0.10,-0.90,0.43
21.45,40.51,-92.19,0.04,-0.93,0.36
28.59,42.89,-92.19,0.61,-0.33,0.72
32.17,14.30,-119.84,0.62,-0.24,0.75
32.17,14.30,-119.84,0.51,-0.76,0.41
32.17,14.30,-119.84,0.25,-0.95,0.18
32.17,17.87,-119.84,0.90,0.19,0.40
32.17,-3.57,-134.82,-0.01,-1.00,-0.02
30.98,-28.59,-123.30,0.18,0.13,0.97
60.76,-50.04,-125.61,-0.86,-0.46,-0.21
53.61,-61.95,-74.90,-0.83,-0.10,-0.55
58.38,-60.76,-55.31,-0.97,-0.06,-0.25
63.14,-54.80,-48.40,-0.95,0.30,-0.09
78.63,-60.76,-54.16,-0.73,0.49,0.48
86.97,-63.14,-67.99,-0.60,0.31,0.74
86.97,-60.76,-91.04,-0.64,0.43,0.64
73.87,-57.19,-99.10,-0.53,-0.58,0.62
50.04,-61.95,-96.80,-0.43,-0.66,0.61
32.17,-58.38,-99.10,-0.60,0.30,0.74
34.55,-54.80,-96.80,-0.59,-0.80,-0.03
16.68,-45.27,-86.43,-0.99,0.16,0.01
10.72,-47.66,-67.99,-0.71,-0.51,-0.49
17.87,-27.40,-49.55,-0.39,-0.47,-0.79
34.55,-15.49,-28.81,-0.57,-0.17,-0.80
52.42,-13.11,-18.44,-0.27,0.42,-0.86
75.06,-8.34,-25.35,-0.66,0.60,-0.45
106.04,-33.36,-53.01,-0.09,0.99,-0.01
111.99,-11.91,-81.82,0.28,0.95,0.15
114.37,-4.77,-107.17,0.34,-0.23,0.91
97.70,7.15,-127.91,0.33,-0.02,0.94
90.55,7.15,-118.69,0.45,0.24,0.86
90.55,17.87,-115.23,0.55,0.56,0.61
106.04,13.11,-110.62,0.23,-0.21,0.95
103.65,7.15,-122.15,0.03,0.35,0.93
71.48,9.53,-133.67,-0.11,0.82,0.57
52.42,-10.72,-137.13,-0.64,-0.70,-0.31
28.59,-30.98,-118.69,-0.59,-0.72,-0.36
4.77,-30.98,-85.27,-0.31,-0.71,-0.63
5.96,-19.06,-63.38,0.35,-0.83,-0.44
13.11,22.64,-47.25,0.63,-0.26,-0.73
26.21,30.98,-39.18,0.35,-0.33,-0.87
51.23,54.80,-73.75,0.97,0.06,-0.22
59.57,52.42,-66.84,0.54,0.44,-0.72
51.23,45.27,-112.93,0.80,-0.41,0.44
38.13,48.85,-104.86,0.97,0.10,0.23
11.91,7.15,-115.23,0.45,-0.89,0.01
7.15,9.53,-107.17,0.53,-0.83,0.14
2.38,-9.53,-102.56,0.08,-0.97,0.24
11.91,-45.27,-92.19,-0.44,-0.75,-0.49
28.59,-58.38,-78.36,-0.50,-0.86,0.12
36.93,-63.14,-79.51,-0.88,0.48,-0.02
67.91,-67.91,-86.43,-0.45,0.18,0.88
65.53,-59.57,-103.71,-0.25,-0.31,0.92
90.55,-56.00,-102.56,0.21,0.85,0.48
111.99,-30.98,-91.04,0.21,0.96,0.17
115.57,-9.53,-88.73,0.79,0.52,0.33
121.52,0.00,-61.07,0.63,0.78,-0.07
111.99,5.96,-61.07,0.78,0.44,-0.43
96.50,14.30,-46.09,0.53,-0.02,-0.85
91.74,-7.15,-31.11,0.31,0.29,-0.90
81.02,9.53,-25.35,0.54,-0.34,-0.77
35.74,0.00,-29.96,0.22,-0.43,-0.88
10.72,-16.68,-33.42,-0.18,-0.55,-0.82
16.68,-44.08,-46.09,-0.47,-0.48,-0.74
46.46,-67.91,-72.60,-0.53,-0.47,-0.70
66.72,-69.10,-84.12,-0.67,0.61,0.43
84.59,-33.36,-124.45,-0.35,0.11,0.93
78.63,-2.38,-133.67,0.01,0.56,0.83
66.72,11.91,-137.13,0.07,0.10,0.99
53.61,23.83,-124.45,0.55,-0.06,0.83
40.51,25.02,-122.15,0.56,-0.01,0.83
34.55,22.64,-111.78,0.80,-0.41,0.42
26.21,27.40,-112.93,0.42,0.72,0.55
19.06,17.87,-115.23,0.61,-0.37,0.69
15.49,25.02,-107.17,0.95,-0.29,-0.07
20.25,36.93,-82.97,0.67,-0.64,-0.37
8.34,15.49,-101.41,0.93,-0.21,0.29
14.30,30.98,-72.60,0.65,-0.53,-0.54
11.91,27.40,-103.71,0.84,-0.20,0.51
26.21,40.51,-89.88,0.30,0.50,0.81
17.87,30.98,-97.95,0.89,-0.43,0.13
30.98,41.70,-78.36,0.24,-0.75,-0.61
47.66,47.66,-81.82,0.89,0.33,-0.32
20.25,33.36,-65.68,0.29,-0.70,-0.66
19.06,30.98,-67.99,0.78,-0.30,-0.54
28.59,36.93,-46.09,-0.88,0.46,0.02
48.85,19.06,-32.27,0.71,0.53,-0.47
35.74,-22.64,-33.42,0.16,0.50,-0.85
58.38,-30.98,-32.27,0.22,-0.53,-0.82
56.00,-57.19,-55.31,0.16,0.28,-0.95
53.61,-59.57,-58.77,-0.13,0.65,-0.75
42.89,-54.80,-107.17,0.54,-0.81,0.23
25.02,-17.87,-126.76,-0.13,0.93,0.35
42.89,-26.21,-130.21,-0.04,-0.19,0.98
26.21,-16.68,-129.06,0.60,-0.60,0.52
36.93,-10.72,-133.67,0.88,0.26,-0.39
22.64,13.11,-127.91,0.61,-0.34,0.72
30.98,19.06,-121.00,0.84,-0.39,0.37
20.25,30.98,-104.86,0.95,-0.25,-0.19
25.02,33.36,-97.95,0.96,-0.17,0.20
25.02,40.51,-102.56,0.96,-0.27,0.05
32.17,50.04,-87.58,0.96,-0.24,-0.14
39.32,51.23,-86.43,0.96,-0.01,-0.28
32.17,42.89,-88.73,0.40,-0.59,-0.70
35.74,42.89,-65.68,0.56,-0.20,-0.80
13.11,19.06,-49.55,0.38,-0.73,-0.56
15.49,-5.96,-40.33,-0.32,-0.23,-0.92
13.11,-35.74,-51.86,-0.49,-0.83,-0.27
25.02,-41.70,-62.23,-0.97,0.23,-0.07
14.30,-41.70,-79.51,0.03,-0.29,0.96
23.83,-20.25,-125.61,-0.54,-0.72,-0.43
25.02,-33.36,-125.61,-0.26,-0.46,0.84
44.08,-8.34,-135.98,0.72,0.16,-0.67
88.16,-3.57,-127.91,0.47,0.75,0.46
108.42,-16.68,-122.15,0.19,0.94,-0.27
104.84,-1.19,-97.95,0.19,0.98,-0.10
119.14,-5.96,-99.10,0.52,0.82,-0.25
102.46,1.19,-74.90,0.53,0.63,-0.57
110.80,-5.96,-46.09,0.53,0.35,-0.77
89.36,5.96,-35.72,0.52,0.26,-0.81
73.87,3.57,-25.35,0.76,-0.00,-0.64
72.68,21.45,-33.42,0.49,0.50,-0.71
64.34,17.87,-29.96,0.77,-0.15,-0.62
60.76,22.64,-31.11,0.31,-0.73,-0.61
78.63,-9.53,-19.59,-0.23,0.88,-0.42
67.91,-15.49,-20.74,-0.18,0.07,-0.98
27.40,-25.02,-26.50,-0.49,-0.39,-0.78
23.83,-28.59,-54.16,-0.76,-0.61,-0.22
9.53,-33.36,-78.36,-0.66,-0.74,-0.15
21.45,-46.46,-94.49,-0.91,-0.30,0.28
20.25,-20.25,-111.78,-0.21,-0.97,0.08
39.32,-48.85,-112.93,-0.88,0.24,-0.40
17.87,-44.08,-87.58,0.01,-0.91,-0.41
1.19,-14.30,-91.04,0.64,-0.75,0.13
0.00,0.00,-99.10,0.24,-0.69,0.68
15.49,21.45,-107.17,0.69,-0.47,-0.55
17.87,38.13,-86.43,0.95,-0.04,0.29
33.36,48.85,-89.88,0.73,-0.19,-0.66
46.46,57.19,-56.46,0.82,0.34,-0.46
70.29,51.23,-58.77,0.88,0.42,-0.21
90.55,41.70,-58.77,0.45,0.36,-0.82
103.65,28.59,-51.86,0.39,0.69,-0.61
104.84,-2.38,-53.01,-0.20,0.80,-0.56
95.31,13.11,-51.86,0.01,0.83,-0.55
114.37,5.96,-59.92,0.63,0.72,0.30
104.84,15.49,-70.29,-0.04,0.84,-0.54
113.18,0.00,-72.60,0.05,1.00,0.04
109.61,7.15,-77.21,-0.10,0.98,-0.15
113.18,3.57,-86.43,0.01,0.77,-0.64
113.18,7.15,-92.19,0.03,0.90,0.44
114.37,-2.38,-92.19,-0.56,0.79,-0.24
103.65,-28.59,-106.02,-0.55,-0.12,0.82
104.84,-9.53,-108.32,-0.10,0.98,0.18
98.89,-26.21,-107.17,-0.46,0.22,0.86
69.10,-48.85,-118.69,-0.97,0.07,0.23
47.66,-47.66,-106.02,-0.53,-0.45,-0.71
20.25,-51.23,-93.34,-0.57,-0.80,-0.18
21.45,-52.42,-77.21,-0.66,-0.68,-0.33
14.30,-48.85,-64.53,-0.32,-0.77,-0.56
11.91,-41.70,-57.62,-0.30,-0.66,-0.69
13.11,-34.55,-49.55,0.03,-0.64,-0.76
17.87,-16.68,-40.33,0.08,-0.41,-0.91
26.21,-5.96,-28.81,0.16,-0.76,-0.63
30.98,-9.53,-26.50,0.57,0.02,-0.82
42.89,7.15,-25.35,0.18,-0.16,-0.97
40.51,15.49,-27.66,0.57,-0.26,-0.78
44.08,26.21,-35.72,0.45,-0.21,-0.87
36.93,9.53,-31.11,0.49,0.14,-0.86
41.70,13.11,-28.81,0.02,-0.15,-0.99
50.04,4.77,-34.57,0.24,0.18,-0.95
45.27,5.96,-18.44,-0.10,0.09,-0.99
40.51,-7.15,-26.50,0.27,-0.60,-0.75
30.98,-14.30,-32.27,-0.27,0.02,-0.96
17.87,-8.34,-32.27,-0.49,-0.65,-0.58
9.53,-20.25,-50.70,-0.40,-0.90,-0.18
5.96,-34.55,-57.62,-0.66,-0.72,-0.21
8.34,-38.13,-78.36,-0.78,-0.52,0.34
13.11,-42.89,-87.58,-0.83,-0.51,-0.20
30.98,-48.85,-94.49,-0.93,-0.12,0.34
36.93,-41.70,-115.23,-0.80,-0.13,0.59
72.68,-46.46,-126.76,-0.32,0.78,0.53
88.16,-5.96,-132.52,-0.03,0.81,0.59
91.74,2.38,-130.21,0.27,0.91,0.30
94.12,7.15,-114.08,0.63,0.71,0.30
90.55,32.17,-101.41,0.69,0.72,0.02
97.70,30.98,-108.32,0.64,0.76,0.07
94.12,38.13,-91.04,0.59,0.81,-0.07
95.31,35.74,-82.97,0.84,0.46,-0.29
89.36,42.89,-82.97,0.54,0.63,-0.56
79.82,45.27,-78.36,0.87,0.48,-0.04
76.25,42.89,-81.82,0.90,0.03,-0.44
67.91,45.27,-86.43,0.71,-0.18,-0.67
52.42,50.04,-71.45,0.54,-0.57,-0.62
26.21,33.36,-74.90,0.69,-0.03,-0.72
29.79,28.59,-53.01,0.71,-0.31,-0.63
22.64,28.59,-62.23,0.23,-0.70,-0.67
4.77,19.06,-63.38,0.81,-0.12,-0.57
8.34,11.91,-73.75,0.02,-0.92,-0.38
7.15,4.77,-67.99,-0.24,-0.96,-0.12
3.57,-7.15,-59.92,-0.11,-0.78,-0.62
3.57,-7.15,-59.92,-0.28,-0.96,-0.04
3.57,-7.15,-59.92,-0.49,-0.87,0.10
10.72,-29.79,-101.41,-0.22,0.21,0.95
38.13,-46.46,-109.47,-0.87,-0.27,0.40
42.89,-42.89,-114.08,-0.16,-0.09,0.98
50.04,-30.98,-133.67,0.37,0.63,0.69
67.91,-5.96,-134.82,0.23,0.36,0.91
60.76,11.91,-138.28,0.91,0.32,-0.28
60.76,27.40,-129.06,0.97,-0.15,-0.17
53.61,46.46,-103.71,0.86,-0.02,-0.51
44.08,50.04,-103.71,0.93,-0.26,-0.25
33.36,47.66,-70.29,0.90,-0.39,-0.17
36.93,34.55,-42.64,0.51,-0.33,-0.79
26.21,20.25,-40.33,0.35,-0.43,-0.83
10.72,14.30,-50.70,0.14,-0.57,-0.81
3.57,0.00,-62.23,0.24,-0.69,-0.68
7.15,-20.25,-71.45,0.13,-0.32,-0.94
3.57,-14.30,-67.99,-0.29,-0.57,0.77
0.00,-15.49,-76.05,-0.21,-0.58,-0.79
5.96,-38.13,-97.95,-0.13,-0.87,-0.48
9.53,-36.93,-101.41,-0.72,0.56,0.40
56.00,-51.23,-106.02,-0.43,0.29,-0.85
82.21,-66.72,-94.49,-0.45,0.80,-0.39
111.99,-26.21,-71.45,0.03,0.95,-0.31
111.99,10.72,-81.82,0.39,0.92,0.02
98.89,27.40,-103.71,0.69,0.70,0.20
75.06,45.27,-88.73,0.83,0.55,0.07
61.95,52.42,-80.66,0.87,0.48,-0.07
51.23,48.85,-74.90,0.92,0.26,-0.28
51.23,47.66,-82.97,0.85,0.46,0.27
42.89,47.66,-70.29,-0.93,-0.33,-0.15
34.55,45.27,-89.88,0.70,-0.71,0.09
13.11,28.59,-63.38,0.81,-0.58,-0.06
0.00,-1.19,-54.16,0.05,-0.75,-0.66
5.96,-13.11,-61.07,0.05,-0.03,-1.00
19.06,-32.17,-42.64,-0.06,-0.74,-0.67
41.70,-47.66,-47.25,0.11,-0.66,-0.74
47.66,-48.85,-35.72,-0.09,-0.13,-0.99
69.10,-34.55,-27.66,-0.28,-0.66,-0.70
73.87,-60.76,-41.48,-0.39,0.20,-0.90
79.82,-53.61,-49.55,-0.80,-0.10,0.59
64.34,-61.95,-63.38,-0.23,-0.64,-0.73
21.45,-48.85,-64.53,-0.26,-0.96,-0.11
3.57,-29.79,-81.82,-0.03,-0.99,-0.16
15.49,-22.64,-108.32,0.05,-0.96,-0.28
29.79,-27.40,-126.76,0.27,-0.72,0.64
34.55,-10.72,-133.67,0.12,-0.20,0.97
60.76,3.57,-137.13,0.74,-0.42,0.53
79.82,9.53,-131.37,0.79,0.24,0.57
102.46,-9.53,-103.71,0.23,0.97,0.03
117.95,-20.25,-81.82,-0.20,0.83,-0.52
94.12,-38.13,-51.86,-0.50,0.65,-0.57
73.87,-50.04,-46.09,-0.44,0.12,-0.89
60.76,-53.61,-43.79,-0.48,0.32,-0.82
29.79,-44.08,-51.86,-0.29,-0.43,-0.85
9.53,-26.21,-59.92,0.26,-0.94,-0.22
2.38,9.53,-93.34,0.29,-0.87,0.40
17.87,22.64,-114.08,0.61,-0.69,0.39
46.46,38.13,-112.93,0.75,0.37,0.55
46.46,30.98,-123.30,0.74,-0.38,0.55
82.21,28.59,-115.23,-0.01,0.68,0.73
102.46,-9.53,-117.54,0.31,0.56,0.77
113.18,-13.11,-103.71,-0.14,0.91,0.40
109.61,-28.59,-74.90,0.14,0.73,0.66
106.04,-30.98,-74.90,-0.59,0.22,-0.78
64.34,-48.85,-33.42,-0.59,0.29,-0.75
46.46,-38.13,-33.42,-0.84,-0.36,-0.41
10.72,-33.36,-56.46,-0.37,-0.81,-0.46
7.15,-15.49,-77.21,-0.22,-0.97,0.11
0.00,-2.38,-99.10,0.34,-0.57,0.75
16.68,17.87,-116.39,0.43,-0.74,0.52
35.74,20.25,-125.61,-0.41,-0.26,0.87
65.53,8.34,-139.43,0.39,-0.05,0.92
85.78,4.77,-126.76,-0.09,0.43,0.90
98.89,2.38,-121.00,-0.01,0.31,0.95
106.04,-15.49,-123.30,-0.25,0.63,0.74
108.42,-33.36,-95.64,-0.43,0.14,0.89
78.63,-60.76,-67.99,-1.00,0.01,-0.00
42.89,-64.34,-54.16,-0.92,-0.37,-0.13
21.45,-52.42,-58.77,-0.11,-0.99,-0.07
2.38,-13.11,-79.51,0.06,-0.94,0.33
8.34,-11.91,-108.32,-0.08,-0.63,0.77
23.83,4.77,-129.06,0.21,-0.79,0.57
64.34,15.49,-133.67,0.29,0.46,0.84
81.02,11.91,-132.52,0.65,0.64,0.42
91.74,-7.15,-124.45,-0.40,0.90,-0.17
91.74,-11.91,-129.06,0.46,0.36,0.81
107.23,-16.68,-101.41,-0.38,0.85,-0.37
110.80,-30.98,-95.64,-0.50,0.61,0.61
110.80,-39.32,-88.73,-0.76,0.54,-0.36
81.02,-65.53,-56.46,-0.23,-0.92,-0.31
11.91,-35.74,-40.33,-0.32,-0.41,-0.85
19.06,-48.85,-74.90,-0.25,-0.94,-0.24
14.30,-50.04,-81.82,0.30,-0.30,-0.90
9.53,-30.98,-115.23,0.32,-0.94,0.13
10.72,-19.06,-116.39,0.39,-0.09,0.92
22.64,-23.83,-119.84,0.44,-0.40,0.80
33.36,-2.38,-135.98,0.01,-0.48,0.88
44.08,-15.49,-137.13,0.43,0.09,0.90
58.38,-4.77,-133.67,0.45,0.34,0.82
86.97,-8.34,-129.06,-0.02,0.75,0.66
95.31,-19.06,-109.47,0.12,0.78,0.62
106.04,-26.21,-94.49,-0.35,0.75,-0.56
91.74,-52.42,-66.84,-0.32,0.87,-0.37
81.02,-40.51,-43.79,-0.61,0.25,-0.75
79.82,-47.66,-43.79,-0.75,0.48,-0.46
78.63,-48.85,-49.55,-0.54,0.44,-0.72
58.38,-54.80,-41.48,-0.49,0.05,-0.87
34.55,-40.51,-43.79,-0.38,-0.33,-0.86
13.11,-28.59,-50.70,-0.70,0.09,-0.71
5.96,-27.40,-59.92,-0.08,-0.85,-0.53
4.77,-20.25,-66.84,-0.01,-0.91,-0.40
5.96,-5.96,-87.58,0.11,-0.98,0.18
15.49,7.15,-122.15,0.23,-0.85,0.47
30.98,21.45,-134.82,0.40,-0.72,0.57
39.32,13.11,-131.37,0.28,-0.48,0.83
53.61,17.87,-133.67,0.34,-0.35,0.87
33.36,8.34,-124.45,0.15,-0.92,0.37
17.87,1.19,-112.93,-0.18,-0.98,-0.02
3.57,-19.06,-102.56,-0.47,-0.72,-0.51
7.15,-32.17,-70.29,-0.66,-0.75,0.06
28.59,-52.42,-54.16,-0.51,0.54,-0.67
58.38,-52.42,-41.48,-0.41,0.33,-0.85
85.78,-45.27,-42.64,-0.21,0.86,-0.46
107.23,-21.45,-51.86,-0.04,1.00,-0.01
115.57,-1.19,-79.51,0.62,0.62,0.47
109.61,14.30,-95.64,0.57,0.54,0.62
102.46,8.34,-102.56,0.85,0.44,0.28
66.72,22.64,-127.91,0.38,-0.67,0.64
69.10,28.59,-118.69,0.73,-0.11,0.67
59.57,45.27,-110.62,0.48,-0.32,0.82
50.04,32.17,-123.30,0.77,-0.31,0.56
41.70,45.27,-102.56,0.45,-0.81,0.37
19.06,32.17,-99.10,0.44,-0.90,-0.06
10.72,17.87,-87.58,0.03,-0.96,0.29
-1.19,-16.68,-76.05,-0.71,-0.53,-0.45
10.72,-29.79,-57.62,-0.52,-0.58,0.62
14.30,-36.93,-54.16,-0.93,-0.06,-0.36
26.21,-51.23,-50.70,-0.80,-0.09,0.59
33.36,-53.61,-55.31,-0.76,-0.62,-0.21
60.76,-64.34,-56.46,-0.73,0.68,-0.06
66.72,-61.95,-62.23,-0.99,0.13,-0.01
78.63,-57.19,-81.82,-0.88,0.20,0.44
81.02,-58.38,-109.47,-0.28,-0.86,0.42
77.44,-28.59,-132.52,-0.19,0.04,0.98
76.25,-36.93,-127.91,-0.58,0.37,0.73
61.95,-25.02,-134.82,-0.72,-0.02,0.69
38.13,-26.21,-129.06,-0.81,-0.56,0.16
32.17,-29.79,-122.15,-0.41,-0.06,0.91
30.98,-48.85,-109.47,-0.99,0.13,-0.06
21.45,-53.61,-84.12,-0.68,-0.67,-0.29
38.13,-60.76,-89.88,-0.70,-0.24,0.67
58.38,-60.76,-103.71,-0.31,0.31,0.90
82.21,-67.91,-102.56,-0.74,0.18,0.65
67.91,-40.51,-109.47,-0.41,-0.33,0.85
69.10,-50.04,-116.39,-0.60,-0.60,0.52
69.10,-22.64,-135.98,0.10,-0.40,0.91
50.04,-25.02,-129.06,-0.65,-0.71,0.27
25.02,2.38,-134.82,0.23,-0.86,0.46
15.49,-10.72,-115.23,-0.38,-0.79,-0.47
2.38,-13.11,-91.04,-0.28,-0.95,-0.13
11.91,-36.93,-58.77,-0.73,-0.23,-0.65
26.21,-34.55,-41.48,-0.27,0.10,-0.96
42.89,-15.49,-26.50,-0.21,0.33,-0.92
71.48,-4.77,-21.89,0.50,0.05,-0.86
83.40,14.30,-28.81,0.65,0.75,0.08
86.97,27.40,-46.09,0.75,0.17,-0.64
75.06,34.55,-48.40,0.79,-0.10,-0.60
71.48,41.70,-61.07,0.73,-0.50,-0.45
60.76,48.85,-61.07,0.76,-0.15,-0.63
51.23,54.80,-58.77,0.82,-0.57,0.06
60.76,44.08,-57.62,0.94,-0.23,-0.25
48.85,47.66,-71.45,0.22,-0.55,-0.81
52.42,32.17,-40.33,0.86,-0.40,0.32
64.34,40.51,-42.64,0.33,-0.20,-0.92
63.14,29.79,-33.42,0.53,-0.10,-0.84
67.91,38.13,-41.48,0.33,0.14,-0.93
67.91,29.79,-40.33,0.38,0.03,-0.93
61.95,30.98,-36.88,0.71,0.24,-0.67
52.42,36.93,-43.79,0.56,0.25,-0.79
60.76,48.85,-62.23,0.68,-0.20,-0.70
59.57,51.23,-48.40,0.40,0.07,-0.91
59.57,30.98,-40.33,0.70,0.11,-0.71
64.34,27.40,-33.42,0.47,-0.53,-0.71
50.04,38.13,-28.81,0.64,-0.33,-0.69
54.80,30.98,-36.88,0.61,-0.48,-0.62
39.32,26.21,-42.64,0.46,-0.08,-0.88
46.46,19.06,-26.50,0.68,-0.65,-0.33
42.89,16.68,-28.81,0.58,-0.36,-0.72
29.79,17.87,-32.27,0.65,-0.13,-0.75
28.59,19.06,-36.88,0.74,-0.37,-0.57
25.02,23.83,-43.79,0.75,-0.18,-0.63
29.79,25.02,-40.33,0.66,-0.49,-0.57
33.36,27.40,-44.94,0.94,-0.30,-0.14
39.32,33.36,-54.16,0.83,-0.37,-0.40
28.59,45.27,-51.86,0.76,-0.47,-0.44
34.55,52.42,-86.43,0.57,0.08,-0.82
59.57,53.61,-84.12,0.92,0.28,0.26
75.06,47.66,-86.43,0.83,0.11,-0.54
88.16,41.70,-74.90,0.81,-0.19,-0.56
92.93,40.51,-70.29,0.64,0.32,-0.70
95.31,28.59,-56.46,0.33,-0.14,-0.93
83.40,25.02,-36.88,0.90,0.43,0.09
78.63,30.98,-39.18,0.81,-0.06,-0.58
75.06,32.17,-38.03,0.35,0.04,-0.93
66.72,25.02,-29.96,0.80,-0.35,-0.48
64.34,22.64,-24.20,0.76,0.02,-0.65
66.72,21.45,-31.11,0.57,-0.56,-0.60
50.04,29.79,-38.03,0.77,-0.03,-0.64
38.13,19.06,-32.27,0.57,-0.40,-0.72
15.49,14.30,-34.57,0.78,-0.23,-0.58
5.96,16.68,-59.92,0.71,-0.41,-0.57
8.34,22.64,-69.14,0.84,-0.03,-0.54
19.06,35.74,-55.31,0.49,-0.80,-0.35
19.06,38.13,-64.53,0.44,-0.00,-0.90
34.55,38.13,-50.70,0.41,-0.87,-0.27
17.87,32.17,-53.01,0.68,0.47,-0.56
35.74,34.55,-49.55,0.70,-0.65,-0.30
23.83,36.93,-50.70,0.62,0.76,-0.18
44.08,38.13,-55.31,0.82,-0.56,-0.13
36.93,50.04,-76.05,0.72,-0.01,-0.70
76.25,47.66,-69.14,0.84,-0.07,-0.53
104.84,29.79,-58.77,0.82,0.39,-0.42
95.31,22.64,-55.31,0.58,0.22,-0.78
104.84,16.68,-44.94,0.55,0.10,-0.83
96.50,19.06,-36.88,0.56,0.70,-0.43
91.74,3.57,-33.42,0.51,0.18,-0.84
89.36,-16.68,-31.11,0.50,0.53,-0.69
91.74,-22.64,-28.81,0.08,0.38,-0.92
86.97,-29.79,-34.57,0.17,0.51,-0.84
76.25,-34.55,-32.27,-0.24,0.16,-0.96
76.25,-34.55,-32.27,0.09,0.01,-1.00
76.25,-34.55,-32.27,-0.71,-0.18,-0.68
48.85,-46.46,-42.64,-0.69,-0.30,-0.65
34.55,-61.95,-62.23,-0.65,-0.76,-0.04
29.79,-54.80,-88.73,-0.70,-0.65,-0.28
25.02,-50.04,-104.86,-0.10,-0.72,0.69
36.93,-36.93,-110.62,-0.74,-0.60,0.31
45.27,-41.70,-124.45,-0.57,-0.32,0.76
54.80,-34.55,-134.82,-0.10,-0.00,0.99
52.42,-32.17,-132.52,-0.25,-0.68,0.68
52.42,-40.51,-125.61,-0.64,-0.70,0.32
60.76,-50.04,-115.23,-0.63,-0.31,0.71
65.53,-59.57,-110.62,-0.92,0.03,0.38
65.53,-67.91,-88.73,-0.90,-0.01,0.44
54.80,-61.95,-85.27,-0.78,0.07,0.62
44.08,-69.10,-84.12,-0.84,-0.50,0.20
30.98,-65.53,-78.36,-0.82,-0.46,0.33
19.06,-51.23,-84.12,-0.83,-0.56,-0.09
15.49,-35.74,-85.27,-0.94,-0.25,-0.24
10.72,-46.46,-82.97,-0.55,-0.50,0.67
15.49,-42.89,-87.58,-0.95,-0.30,-0.12
10.72,-54.80,-72.60,-0.92,-0.14,-0.37
20.25,-53.61,-71.45,-0.55,-0.20,0.81
11.91,-39.32,-87.58,-0.44,-0.90,-0.03
9.53,-22.64,-103.71,-0.47,-0.79,0.40
19.06,-9.53,-119.84,0.01,-0.42,0.91
35.74,2.38,-131.37,-0.13,-0.37,0.92
51.23,1.19,-138.28,-0.33,-0.44,0.83
63.14,-3.57,-139.43,-0.12,0.30,0.95
82.21,-19.06,-134.82,-0.36,-0.03,0.93
84.59,-29.79,-118.69,-0.33,0.81,0.49
91.74,-57.19,-93.34,-0.81,-0.39,-0.44
61.95,-61.95,-51.86,-0.83,-0.46,-0.33
45.27,-61.95,-55.31,-0.68,-0.66,-0.31
30.98,-52.42,-62.23,-0.73,-0.67,-0.14
34.55,-57.19,-50.70,-0.98,-0.17,0.01
69.10,-64.34,-59.92,-0.94,-0.13,-0.30
70.29,-56.00,-56.46,-0.91,-0.39,-0.12
70.29,-59.57,-55.31,-0.84,0.42,-0.34
73.87,-57.19,-49.55,-0.81,-0.53,0.25
60.76,-58.38,-48.40,-0.89,0.18,-0.41
60.76,-45.27,-32.27,-0.64,-0.74,0.17
38.13,-64.34,-42.64,-0.62,-0.79,-0.05
20.25,-41.70,-48.40,-0.64,-0.75,-0.16
10.72,-35.74,-67.99,-0.43,-0.84,0.33
-1.19,-29.79,-85.27,-0.29,-0.94,0.20
13.11,-10.72,-110.62,0.39,-0.13,0.91
25.02,4.77,-131.37,0.10,-0.61,0.78
45.27,7.15,-144.04,-0.20,0.27,0.94
59.57,-1.19,-141.74,0.07,0.41,0.91
61.95,4.77,-139.43,0.10,0.44,0.89
64.34,11.91,-139.43,0.07,-0.00,1.00
64.34,8.34,-134.82,0.59,0.71,0.37
59.57,17.87,-137.13,0.09,-0.12,0.99
59.57,16.68,-131.37,0.84,0.42,0.35
110.80,-1.19,-121.00,-0.79,0.43,-0.44
111.99,-40.51,-67.99,-0.69,0.59,-0.41
107.23,-57.19,-50.70,-0.80,0.54,-0.25
96.50,-46.46,-53.01,-0.82,0.02,-0.57
75.06,-42.89,-44.94,-0.71,0.23,-0.66
75.06,-45.27,-38.03,-0.74,-0.57,-0.35
54.80,-51.23,-36.88,-0.88,-0.21,-0.42
57.19,-53.61,-42.64,-0.79,-0.05,-0.61
52.42,-51.23,-42.64,-0.50,-0.81,-0.30
30.98,-48.85,-44.94,-0.38,-0.91,0.17
19.06,-41.70,-61.07,-0.09,-1.00,-0.02
7.15,-25.02,-74.90,-0.05,-0.90,0.43
5.96,0.00,-95.64,0.45,-0.85,0.25
26.21,25.02,-108.32,0.28,0.31,0.91
63.14,20.25,-138.28,-0.02,0.17,0.98
78.63,13.11,-129.06,0.26,0.84,0.48
96.50,16.68,-119.84,-0.04,0.69,0.72
90.55,14.30,-112.93,0.21,0.73,0.65
100.08,11.91,-102.56,-0.18,0.98,-0.02
113.18,-19.06,-81.82,-0.74,0.54,-0.40
114.37,-27.40,-71.45,-0.30,0.86,-0.41
108.42,-22.64,-61.07,-0.56,0.70,-0.44
104.84,-25.02,-51.86,-0.52,-0.02,-0.85
92.93,-28.59,-34.57,-0.76,-0.13,-0.64
70.29,-32.17,-23.05,-0.06,-0.22,-0.97
54.80,-17.87,-19.59,-0.10,-0.34,-0.93
45.27,-19.06,-18.44,-0.22,0.37,-0.90
54.80,-22.64,-27.66,-0.27,-0.31,-0.91
88.16,-9.53,-14.98,-0.06,0.56,-0.82
72.68,-16.68,-25.35,-0.43,-0.68,-0.60
54.80,-15.49,-19.59,-0.37,-0.16,-0.91
47.66,-27.40,-19.59,-0.23,-0.79,-0.57
28.59,-11.91,-27.66,-0.13,-0.89,-0.43
10.72,-4.77,-48.40,0.48,-0.87,-0.13
3.57,7.15,-70.29,0.20,-0.91,0.36
3.57,9.53,-78.36,0.34,-0.93,0.15
4.77,14.30,-80.66,0.47,-0.82,0.31
8.34,11.91,-73.75,0.20,-0.93,-0.30
4.77,14.30,-67.99,0.27,-0.90,0.35
9.53,9.53,-59.92,0.79,-0.60,0.12
14.30,13.11,-57.62,0.54,-0.62,-0.57
32.17,8.34,-46.09,0.29,-0.88,-0.38
26.21,11.91,-36.88,0.59,-0.59,-0.54
32.17,-7.15,-27.66,0.00,-0.57,-0.82
33.36,-3.57,-24.20,0.21,0.01,-0.98
58.38,-9.53,-26.50,-0.03,-0.44,-0.90
64.34,-10.72,-9.22,-0.05,0.18,-0.98
89.36,-1.19,-28.81,0.23,0.60,-0.77
96.50,4.77,-32.27,0.21,0.58,-0.79
109.61,15.49,-51.86,0.20,0.82,-0.53
107.23,15.49,-63.38,0.19,0.87,-0.45
109.61,22.64,-74.90,-0.05,0.93,-0.37
106.04,23.83,-61.07,0.64,0.72,-0.26
70.29,46.46,-77.21,0.14,-0.59,-0.79
59.57,41.70,-86.43,0.91,-0.40,0.03
25.02,46.46,-66.84,0.91,-0.00,-0.41
19.06,54.80,-65.68,0.37,-0.81,-0.45
3.57,25.02,-32.27,0.76,-0.44,-0.48
40.51,38.13,-19.59,0.67,-0.37,-0.64
58.38,-23.83,-16.13,0.26,-0.47,-0.85
42.89,2.38,-14.98,0.33,-0.66,-0.68
44.08,-25.02,-18.44,0.48,0.20,-0.85
27.40,-13.11,-17.29,-0.12,-0.57,-0.81
39.32,-10.72,-14.98,0.15,-0.22,-0.96
46.46,-36.93,-17.29,0.04,-0.37,-0.93
53.61,-34.55,-19.59,0.11,0.42,-0.90
71.48,-7.15,-17.29,0.07,0.43,-0.90
84.59,-32.17,-27.66,0.14,0.25,-0.96
95.31,-39.32,-44.94,0.26,0.61,-0.75
103.65,-14.30,-33.42,-0.01,-0.10,-0.99
111.99,-27.40,-55.31,0.17,0.86,-0.48
107.23,-21.45,-66.84,0.32,0.86,-0.41
110.80,0.00,-110.62,-0.60,0.20,0.77
52.42,2.38,-138.28,0.59,-0.76,0.26
25.02,25.02,-117.54,0.88,-0.02,0.47
23.83,4.77,-125.61,0.44,-0.83,0.34
17.87,1.19,-116.39,0.22,-0.94,0.27
20.25,-20.25,-121.00,-0.05,-0.98,0.19
21.45,-17.87,-121.00,-0.15,-0.78,0.60
19.06,-10.72,-119.84,0.16,-0.92,-0.36
19.06,-11.91,-114.08,-0.43,-0.90,-0.08
-1.19,-7.15,-92.19,0.09,-0.99,-0.07
-5.96,-26.21,-93.34,-0.25,-0.89,-0.37
10.72,-41.70,-87.58,-0.21,-0.89,-0.42
9.53,-40.51,-59.92,-0.44,-0.68,-0.58
15.49,-46.46,-62.23,-0.72,-0.29,-0.63
25.02,-53.61,-55.31,-0.64,0.07,-0.77
44.08,-61.95,-51.86,-0.87,-0.08,-0.48
56.00,-59.57,-51.86,-0.51,0.75,-0.42
65.53,-60.76,-53.01,-0.88,-0.10,-0.46
63.14,-69.10,-65.68,-0.54,0.82,-0.18
72.68,-60.76,-58.77,-0.77,0.58,-0.28
75.06,-59.57,-59.92,-0.94,-0.27,0.22
81.02,-60.76,-72.60,-0.60,0.79,0.13
91.74,-56.00,-66.84,-0.93,0.33,0.15
90.55,-46.46,-102.56,-0.42,0.34,0.84
91.74,-39.32,-119.84,-0.32,-0.32,0.89
78.63,-27.40,-124.45,-0.18,-0.10,0.98
71.48,-42.89,-122.15,-0.24,0.49,0.84
67.91,-33.36,-137.13,-0.72,-0.39,0.58
75.06,-35.74,-129.06,-0.51,0.06,0.86
81.02,-27.40,-127.91,-0.45,0.46,0.77
89.36,-30.98,-121.00,-0.59,-0.03,0.81
83.40,-47.66,-116.39,-0.92,0.27,0.27
98.89,-40.51,-102.56,-0.52,0.84,0.13
103.65,-27.40,-112.93,-0.54,0.83,0.09
84.59,-34.55,-121.00,-0.89,-0.13,0.43
90.55,-26.21,-124.45,-0.54,0.76,0.36
64.34,-9.53,-138.28,-0.43,-0.35,0.83
42.89,-5.96,-133.67,-0.38,-0.31,0.87
14.30,2.38,-115.23,0.31,-0.59,0.74
15.49,-10.72,-111.78,-0.66,-0.36,0.65
0.00,-29.79,-95.64,0.08,-0.95,0.31
16.68,-32.17,-102.56,-0.21,0.07,0.97
10.72,-41.70,-89.88,-0.69,-0.65,-0.30
33.36,-54.80,-89.88,0.00,-0.95,0.30
47.66,-56.00,-107.17,-0.85,-0.52,-0.01
59.57,-50.04,-117.54,-0.69,-0.08,0.72
56.00,-50.04,-118.69,-0.80,-0.55,0.23
69.10,-50.04,-118.69,-0.59,0.08,0.80
110.80,-39.32,-94.49,-0.57,0.79,-0.20
109.61,-22.64,-103.71,-0.40,0.92,0.02
73.87,-36.93,-131.37,-0.65,-0.53,0.55
78.63,-33.36,-126.76,0.22,0.90,0.38
44.08,-1.19,-137.13,0.59,-0.70,0.40
35.74,15.49,-137.13,0.53,0.23,0.82
15.49,15.49,-125.61,0.54,-0.77,0.34
15.49,19.06,-115.23,0.65,-0.38,0.65
10.72,8.34,-100.25,0.93,-0.30,0.23
1.19,1.19,-94.49,0.18,-0.98,-0.08
2.38,-22.64,-71.45,0.27,-0.93,-0.25
9.53,-39.32,-66.84,-0.37,-0.92,-0.16
15.49,-42.89,-69.14,-0.31,-0.74,-0.59
22.64,-51.23,-63.38,-0.09,-0.62,-0.78
16.68,-50.04,-59.92,-0.33,-0.87,-0.36
44.08,-56.00,-73.75,-0.65,0.60,-0.47
52.42,-61.95,-70.29,-0.47,-0.53,-0.71
59.57,-59.57,-67.99,-0.83,0.17,-0.52
63.14,-67.91,-74.90,-0.83,0.25,-0.50
64.34,-53.61,-112.93,-0.26,-0.51,0.82
45.27,-47.66,-126.76,-0.26,0.13,0.96
27.40,-41.70,-117.54,-0.33,-0.84,0.44
34.55,-46.46,-115.23,-0.70,0.40,0.59
19.06,-35.74,-109.47,0.17,-0.96,0.22
2.38,-29.79,-85.27,-0.12,-0.98,-0.12
16.68,-50.04,-78.36,-0.28,-0.93,-0.23
25.02,-56.00,-78.36,-0.50,-0.76,-0.42
35.74,-67.91,-80.66,-0.57,-0.27,-0.77
35.74,-56.00,-95.64,-0.70,-0.64,0.32
42.89,-63.14,-92.19,-0.88,0.26,-0.40
48.85,-52.42,-107.17,-0.71,-0.55,0.43
39.32,-41.70,-123.30,-0.28,-0.06,0.96
50.04,-42.89,-126.76,-0.50,0.26,0.83
47.66,-20.25,-132.52,0.05,-0.36,0.93
47.66,-9.53,-137.13,0.23,0.20,0.95
82.21,10.72,-132.52,0.87,0.39,0.29
90.55,11.91,-123.30,0.65,0.75,0.15
101.27,17.87,-108.32,0.71,0.70,0.09
107.23,17.87,-95.64,0.35,0.75,-0.56
109.61,9.53,-57.62,0.52,0.46,-0.72
95.31,10.72,-26.50,0.43,0.29,-0.85
70.29,17.87,-13.83,0.35,-0.04,-0.94
70.29,17.87,-13.83,0.20,-0.27,-0.94
70.29,17.87,-13.83,0.28,-0.87,-0.41
48.85,11.91,-27.66,0.23,-0.16,-0.96
13.11,1.19,-25.35,0.07,-0.92,-0.39
21.45,-1.19,-31.11,-0.10,-0.65,-0.75
22.64,-13.11,-36.88,-0.09,-0.85,-0.52
26.21,-19.06,-38.03,-0.33,-0.91,-0.26
15.49,-22.64,-41.48,-0.66,-0.66,-0.35
17.87,-32.17,-42.64,-0.51,-0.81,-0.28
14.30,-32.17,-51.86,-0.16,-0.99,0.01
9.53,-29.79,-59.92,-0.28,-0.46,-0.84
21.45,-48.85,-81.82,0.23,-0.80,0.56
23.83,-48.85,-107.17,-0.22,-0.94,0.25
26.21,-51.23,-108.32,-0.54,0.72,0.43
65.53,-59.57,-111.78,-0.15,-0.20,0.97
78.63,-46.46,-112.93,-0.27,0.56,0.78
97.70,-46.46,-93.34,0.10,0.99,-0.04
109.61,-20.25,-71.45,0.46,0.62,0.63
91.74,-36.93,-54.16,-0.37,-0.44,-0.82
39.32,-30.98,-29.96,-0.09,0.89,-0.44
36.93,-40.51,-33.42,-0.40,-0.70,-0.59
20.25,-21.45,-38.03,0.14,0.37,-0.92
16.68,-17.87,-41.48,-0.05,-0.94,-0.32
14.30,7.15,-50.70,0.06,-0.97,-0.22
-2.38,-2.38,-64.53,0.01,-0.49,-0.87
3.57,-19.06,-73.75,0.18,-0.98,0.06
0.00,-13.11,-80.66,-0.95,0.32,0.02
16.68,-39.32,-103.71,-0.13,-0.97,0.19
10.72,-21.45,-107.17,-0.99,0.05,0.13
27.40,-40.51,-109.47,0.09,-0.94,0.34
19.06,-13.11,-102.56,-0.33,-0.89,0.32
16.68,-30.98,-116.39,-0.19,-0.98,0.06
33.36,-54.80,-122.15,-0.47,-0.88,0.03
23.83,-51.23,-101.41,-0.56,-0.57,0.60
27.40,-50.04,-101.41,-0.61,-0.77,0.17
14.30,-41.70,-94.49,0.19,-0.92,-0.34
1.19,-16.68,-77.21,0.28,-0.92,-0.27
4.77,-28.59,-69.14,0.24,-0.92,-0.31
7.15,-34.55,-80.66,-0.44,-0.87,-0.24
16.68,-41.70,-94.49,-0.65,-0.73,0.21
22.64,-44.08,-104.86,-0.76,-0.57,0.31
27.40,-38.13,-117.54,-0.50,-0.22,0.84
33.36,-16.68,-133.67,-0.10,-0.24,0.97
23.83,7.15,-121.00,0.14,-0.57,0.81
20.25,7.15,-109.47,-0.17,-0.79,0.59
4.77,8.34,-110.62,0.10,-0.99,0.10
5.96,13.11,-78.36,-0.03,-0.96,0.26
-2.38,-1.19,-85.27,-0.17,-0.80,0.57
7.15,-2.38,-93.34,-0.48,-0.87,0.06
8.34,-9.53,-108.32,-0.28,-0.54,0.79
27.40,-9.53,-131.37,-0.45,-0.56,0.70
53.61,-17.87,-134.82,-0.44,-0.37,0.82
85.78,-30.98,-123.30,-0.33,0.91,-0.23
113.18,-30.98,-78.36,-0.64,0.75,-0.16
100.08,-40.51,-82.97,-0.67,0.21,-0.71
79.82,-41.70,-43.79,-0.25,-0.41,-0.88
53.61,-32.17,-25.35,-0.13,-0.91,-0.38
45.27,-44.08,-46.09,-0.37,-0.27,-0.89
25.02,-39.32,-46.09,0.10,-0.97,-0.24
22.64,-44.08,-82.97,-0.37,-0.82,-0.44
25.02,-50.04,-89.88,-0.70,-0.65,0.29
21.45,-44.08,-106.02,-0.50,-0.85,0.13
22.64,-42.89,-110.62,-0.61,-0.76,0.23
19.06,-33.36,-112.93,-0.75,-0.56,0.35
20.25,-33.36,-118.69,-0.60,-0.79,0.14
14.30,-23.83,-110.62,-0.45,-0.84,0.31
13.11,-27.40,-100.25,-0.75,-0.64,0.13
8.34,-33.36,-100.25,-0.61,-0.79,0.09
4.77,-28.59,-91.04,-0.59,-0.57,0.56
9.53,-35.74,-89.88,-0.79,-0.61,0.06
0.00,-36.93,-96.80,-0.56,-0.71,0.42
0.00,-34.55,-82.97,-0.39,-0.86,0.34
16.68,-39.32,-87.58,-0.40,-0.91,0.05
10.72,-28.59,-107.17,-0.88,-0.39,-0.28
20.25,-34.55,-110.62,-0.38,-0.75,0.54
27.40,-33.36,-123.30,-0.78,-0.59,0.21
48.85,-45.27,-122.15,-0.76,-0.64,0.03
64.34,-61.95,-97.95,-0.65,0.00,-0.76
64.34,-63.14,-51.86,-0.57,-0.42,-0.70
52.42,-52.42,-36.88,-0.90,0.12,-0.41
45.27,-58.38,-47.25,-0.55,-0.63,-0.55
52.42,-48.85,-36.88,-0.82,-0.20,-0.54
48.85,-50.04,-38.03,-0.50,-0.42,-0.76
29.79,-52.42,-49.55,-0.21,-0.82,0.53
26.21,-51.23,-93.34,-0.08,-0.89,0.45
19.06,-45.27,-99.10,-0.59,-0.68,-0.43
29.79,-39.32,-123.30,-0.42,-0.67,-0.61
26.21,-9.53,-125.61,0.53,-0.67,0.51
20.25,22.64,-106.02,-0.28,0.84,-0.47
10.72,16.68,-101.41,0.29,-0.95,0.07
10.72,21.45,-63.38,-0.03,0.34,-0.94
19.06,1.19,-38.03,0.18,-0.98,-0.11
29.79,1.19,-28.81,-0.05,0.06,-1.00
36.93,9.53,-29.96,0.26,-0.78,-0.57
32.17,13.11,-38.03,0.38,-0.37,-0.85
22.64,34.55,-71.45,0.24,-0.74,-0.63
20.25,28.59,-80.66,0.36,-0.93,0.11
5.96,17.87,-59.92,0.70,0.04,-0.71
14.30,-29.79,-99.10,0.22,-0.90,-0.38
0.00,-2.38,-82.97,0.24,-0.96,-0.15
1.19,-17.87,-72.60,0.37,-0.85,-0.36
0.00,-13.11,-67.99,0.23,-0.76,-0.60
1.19,-8.34,-66.84,0.50,-0.86,0.01
1.19,-7.15,-58.77,0.65,-0.58,-0.50
14.30,15.49,-58.77,0.63,-0.53,-0.57
11.91,19.06,-49.55,0.70,-0.55,-0.44
22.64,23.83,-47.25,0.49,-0.59,-0.64
15.49,15.49,-49.55,0.49,-0.77,-0.41
32.17,23.83,-48.40,0.47,-0.87,-0.18
25.02,25.02,-48.40,0.66,-0.58,-0.48
11.91,23.83,-58.77,0.78,-0.33,-0.53
11.91,20.25,-50.70,0.73,-0.66,-0.17
20.25,22.64,-51.86,0.55,-0.44,-0.70
19.06,11.91,-24.20,0.52,-0.85,0.04
21.45,10.72,-27.66,0.38,0.13,-0.92
14.30,-2.38,-28.81,0.35,-0.74,-0.57
9.53,-2.38,-41.48,0.45,-0.62,-0.64
4.77,-26.21,-57.62,0.07,-0.91,-0.41
5.96,-34.55,-64.53,-0.01,-0.75,-0.66
20.25,-56.00,-80.66,-0.23,-0.97,0.07
32.17,-52.42,-89.88,-0.81,-0.57,0.12
38.13,-47.66,-99.10,-0.74,-0.32,-0.59
27.40,-40.51,-96.80,-0.39,-0.51,-0.77
14.30,-42.89,-85.27,0.14,-0.99,-0.02
17.87,-36.93,-94.49,-0.04,-0.23,0.97
42.89,-51.23,-115.23,0.02,-0.12,0.99
53.61,-47.66,-125.61,-0.35,0.12,0.93
60.76,-64.34,-95.64,-0.76,-0.29,0.58
28.59,-54.80,-77.21,-0.50,-0.70,-0.51
20.25,-42.89,-59.92,-0.66,-0.10,-0.75
25.02,-50.04,-67.99,-0.96,-0.08,-0.26
21.45,-51.23,-70.29,-0.89,-0.37,-0.27
19.06,-57.19,-72.60,-0.86,-0.39,-0.33
17.87,-45.27,-65.68,-0.89,-0.38,-0.22
22.64,-50.04,-59.92,-0.87,-0.34,-0.36
20.25,-48.85,-71.45,-0.84,-0.40,-0.37
33.36,-60.76,-57.62,-0.73,-0.36,-0.57
22.64,-48.85,-69.14,-0.96,0.01,-0.26
27.40,-51.23,-88.73,-1.00,-0.03,-0.07
25.02,-42.89,-99.10,-0.77,-0.64,-0.01
9.53,-28.59,-97.95,-0.49,-0.80,0.34
8.34,-42.89,-94.49,-0.92,-0.28,0.27
22.64,-44.08,-91.04,-0.89,-0.04,-0.44
29.79,-56.00,-103.71,-0.76,-0.53,0.38
35.74,-50.04,-110.62,-0.16,-0.21,0.96
35.74,-50.04,-123.30,0.11,-0.25,0.96
61.95,-42.89,-117.54,0.07,0.62,0.78
48.85,-64.34,-80.66,-0.22,-0.98,-0.03
15.49,-42.89,-77.21,-0.53,-0.19,-0.83
27.40,-60.76,-89.88,-0.80,0.47,0.37
25.02,-52.42,-93.34,-0.70,-0.59,0.40
17.87,-46.46,-96.80,-0.94,-0.32,-0.04
27.40,-50.04,-97.95,-0.94,-0.30,0.14
21.45,-51.23,-96.80,-0.94,-0.34,-0.01
29.79,-51.23,-104.86,-0.89,-0.37,0.27
33.36,-42.89,-115.23,-0.82,-0.45,0.35
50.04,-52.42,-116.39,-0.92,0.28,0.26
63.14,-56.00,-112.93,-0.90,-0.21,0.37
65.53,-61.95,-103.71,-0.94,0.18,-0.28
54.80,-72.68,-71.45,-0.24,-0.54,-0.80
25.02,-42.89,-40.33,-0.17,-0.65,-0.74
26.21,-45.27,-66.84,-0.14,-0.97,0.20
8.34,-41.70,-63.38,-0.48,-0.53,-0.70
8.34,-34.55,-85.27,0.29,-0.89,0.35
4.77,-23.83,-92.19,-0.31,-0.94,-0.14
16.68,-39.32,-96.80,-0.77,-0.25,-0.58
7.15,-29.79,-95.64,-0.04,-0.98,-0.18
2.38,-20.25,-82.97,-0.16,-0.96,0.21
16.68,-40.51,-85.27,-0.78,-0.35,-0.51
9.53,-29.79,-88.73,-0.49,-0.85,-0.17
8.34,-32.17,-89.88,-0.60,-0.79,-0.08
2.38,-8.34,-79.51,-0.08,-0.89,-0.45
3.57,-14.30,-74.90,0.30,-0.79,-0.53
8.34,2.38,-56.46,0.12,-0.60,-0.79
4.77,7.15,-53.01,0.23,-0.92,-0.31
3.57,10.72,-59.92,0.70,-0.36,-0.62
17.87,28.59,-78.36,0.42,-0.34,-0.84
19.06,26.21,-71.45,0.73,-0.55,-0.40